# .PCD v.7 - Point Cloud Data file format
VERSION .7
FIELDS x y z rgb
SIZE 4 4 4 4
TYPE F F F F
COUNT 1 1 1 1
WIDTH 614
HEIGHT 1
VIEWPOINT 0 0 0 1 0 0 0
POINTS 614
DATA ascii
0.000000 0.000000 5.000000 16777215
0.000000 0.000000 4.750000 16777215
0.000000 0.000000 4.500000 16777215
0.000000 0.000000 4.250000 16777215
0.000000 0.000000 4.000000 16777215
0.000000 0.000000 3.750000 16777215
0.000000 0.000000 3.500000 16777215
0.000000 0.000000 3.250000 16777215
0.000000 0.000000 3.000000 16777215
0.000000 0.000000 2.750000 16777215
0.000000 0.000000 2.500000 16777215
0.000000 0.000000 2.250000 16777215
0.000000 0.000000 2.000000 16777215
0.000000 0.000000 1.750000 16777215
0.000000 0.000000 1.500000 16777215
0.000000 0.000000 1.250000 16777215
0.000000 0.000000 1.000000 16777215
0.000000 0.000000 0.750000 16777215
0.000000 0.000000 0.500000 16777215
0.000000 0.000000 0.250000 16777215
0.000000 0.000000 0.000000 16777215
-0.000821 -0.014989 4.978472 16777215
0.009201 -0.014369 4.728673 16777215
0.019224 -0.013749 4.478875 16777215
0.029246 -0.013128 4.229077 16777215
0.039269 -0.012508 3.979279 16777215
0.049291 -0.011887 3.729481 16777215
0.059314 -0.011267 3.479682 16777215
0.069336 -0.010646 3.229884 16777215
0.079359 -0.010026 2.980086 16777215
0.089381 -0.009405 2.730288 16777215
0.099404 -0.008785 2.480490 16777215
0.109426 -0.008165 2.230691 16777215
0.119449 -0.007544 1.980893 16777215
0.129471 -0.006924 1.731095 16777215
0.139494 -0.006303 1.481297 16777215
0.149516 -0.005683 1.231499 16777215
0.159539 -0.005062 0.981700 16777215
0.169561 -0.004442 0.731902 16777215
0.179584 -0.003821 0.482104 16777215
0.189606 -0.003201 0.232306 16777215
0.199629 -0.002581 -0.017493 16777215
-0.001868 -0.009977 4.968992 16777215
0.018163 -0.009598 4.719797 16777215
0.038195 -0.009218 4.470601 16777215
0.058226 -0.008839 4.221405 16777215
0.078258 -0.008460 3.972209 16777215
0.098289 -0.008080 3.723013 16777215
0.118321 -0.007701 3.473817 16777215
0.138352 -0.007321 3.224622 16777215
0.158384 -0.006942 2.975426 16777215
0.178415 -0.006562 2.726230 16777215
0.198447 -0.006183 2.477034 16777215
0.218478 -0.005803 2.227839 16777215
0.238510 -0.005424 1.978643 16777215
0.258541 -0.005044 1.729447 16777215
0.278573 -0.004665 1.480251 16777215
0.298604 -0.004285 1.231056 16777215
0.318636 -0.003906 0.981860 16777215
0.338667 -0.003526 0.732664 16777215
0.358699 -0.003147 0.483468 16777215
0.378731 -0.002767 0.234272 16777215
0.398762 -0.002388 -0.014923 16777215
0.004925 -0.007573 4.950443 16777215
0.034598 -0.007334 4.702210 16777215
0.064272 -0.007096 4.453978 16777215
0.093945 -0.006858 4.205745 16777215
0.123619 -0.006620 3.957512 16777215
0.153292 -0.006382 3.709280 16777215
0.182966 -0.006144 3.461047 16777215
0.212639 -0.005906 3.212815 16777215
0.242312 -0.005668 2.964582 16777215
0.271986 -0.005430 2.716350 16777215
0.301659 -0.005192 2.468117 16777215
0.331333 -0.004954 2.219885 16777215
0.361006 -0.004716 1.971653 16777215
0.390680 -0.004478 1.723420 16777215
0.420353 -0.004240 1.475188 16777215
0.450027 -0.004002 1.226955 16777215
0.479700 -0.003764 0.978723 16777215
0.509373 -0.003526 0.730490 16777215
0.539047 -0.003288 0.482258 16777215
0.568720 -0.003050 0.234025 16777215
0.598394 -0.002812 -0.014207 16777215
0.012634 -0.010575 4.922722 16777215
0.051921 -0.010204 4.675829 16777215
0.091207 -0.009833 4.428935 16777215
0.130493 -0.009463 4.182042 16777215
0.169779 -0.009092 3.935148 16777215
0.209065 -0.008722 3.688255 16777215
0.248352 -0.008351 3.441361 16777215
0.287638 -0.007981 3.194467 16777215
0.326924 -0.007610 2.947574 16777215
0.366210 -0.007240 2.700680 16777215
0.405497 -0.006869 2.453787 16777215
0.444783 -0.006499 2.206893 16777215
0.484069 -0.006128 1.960000 16777215
0.523355 -0.005757 1.713106 16777215
0.562641 -0.005387 1.466213 16777215
0.601928 -0.005016 1.219319 16777215
0.641214 -0.004646 0.972425 16777215
0.680500 -0.004275 0.725532 16777215
0.719786 -0.003905 0.478638 16777215
0.759073 -0.003534 0.231745 16777215
0.798359 -0.003164 -0.015149 16777215
-0.095370 0.206704 5.004985 16777215
-0.196120 0.905292 4.600802 16777215
0.703001 0.405668 5.002517 16777215
0.802246 0.305731 5.002487 16777215
-0.095637 0.506699 4.802668 16777215
0.700309 -0.888659 5.004463 16777215
0.105238 0.006072 5.005037 16777215
0.303975 0.605558 4.601866 16777215
0.205078 0.406767 5.003910 16777215
-0.796617 0.006476 5.006049 16777215
0.303531 0.805049 4.701762 16777215
0.402908 1.004301 5.001430 16777215
-0.496370 0.407107 5.005144 16777215
0.603128 -0.492513 5.004622 16777215
-0.696649 0.006380 5.005966 16777215
-0.295781 -0.394503 5.006217 16777215
0.603181 0.605369 5.002186 16777215
0.304006 -0.692571 5.005527 16777215
-0.296010 0.805985 4.701683 16777215
-0.096046 0.805556 4.600928 16777215
0.004833 -0.394517 5.005826 16777215
0.702645 -0.392570 5.004227 16777215
0.699757 -0.987490 5.004459 16777215
0.899588 0.803384 5.000585 16777215
-0.495989 0.906685 5.004032 16777215
-0.195486 -0.892039 5.006590 16777215
-0.896362 0.806987 5.005014 16777215
-0.396295 0.006173 5.005749 16777215
-0.095410 -0.594045 5.006194 16777215
-0.396309 0.106465 5.005585 16777215
-0.195522 -0.991074 5.006650 16777215
-0.095378 -0.494398 5.006089 16777215
0.504390 0.406144 5.003135 16777215
-0.396074 -0.294406 5.006183 16777215
0.798603 -0.986811 5.004126 16777215
-0.095818 0.506231 4.601126 16777215
0.105182 0.206607 5.004619 16777215
-0.295970 0.905960 4.802191 16777215
0.404607 -0.393688 5.005067 16777215
0.203375 0.904638 4.601152 16777215
-0.796501 0.507051 5.005346 16777215
0.003745 0.905030 4.600871 16777215
0.802469 0.006440 5.003264 16777215
-0.195701 0.106422 5.005338 16777215
0.203711 -0.891208 5.005829 16777215
0.503806 0.605704 5.002494 16777215
-0.896305 0.906881 5.004739 16777215
0.303680 0.805249 4.801976 16777215
-0.296029 0.106443 5.005473 16777215
-0.396250 0.306980 5.005223 16777215
-0.395674 -0.593903 5.006559 16777215
-0.295889 0.806554 4.903144 16777215
0.998613 -0.490566 5.003299 16777215
-0.395933 0.806885 5.004103 16777215
0.004525 0.506619 4.802598 16777215
-0.996334 0.906909 5.004778 16777215
-0.695669 -0.593309 5.006872 16777215
0.501611 -0.988707 5.005062 16777215
0.801071 0.704260 5.001222 16777215
0.801748 0.505102 5.001871 16777215
0.305317 0.206451 5.004204 16777215
0.004968 0.106376 5.005016 16777215
0.802476 0.106211 5.003032 16777215
0.604271 0.106218 5.003683 16777215
-0.295373 -0.991130 5.006818 16777215
0.204502 0.506137 4.702112 16777215
-0.996557 0.507063 5.005737 16777215
-0.495976 1.006419 5.003752 16777215
0.504650 -0.193754 5.004562 16777215
0.900987 -0.192719 5.003285 16777215
-0.796040 -0.393586 5.006664 16777215
-0.496219 -0.294264 5.006262 16777215
-0.395416 -0.792791 5.006786 16777215
-0.896577 0.406988 5.005656 16777215
-0.795378 -0.692641 5.007190 16777215
0.105227 0.106349 5.004838 16777215
0.701822 -0.591397 5.004375 16777215
-0.696368 0.607088 5.005030 16777215
-0.295879 1.006193 5.003321 16777215
-0.796401 -0.193698 5.006343 16777215
-0.195691 0.006097 5.005516 16777215
-0.195503 -0.594065 5.006331 16777215
0.204149 0.605750 4.601526 16777215
0.205153 -0.294313 5.005358 16777215
0.305388 0.106291 5.004442 16777215
-0.896526 0.507042 5.005526 16777215
-0.496441 -0.094005 5.005981 16777215
0.302893 1.004097 4.701302 16777215
0.003916 0.805434 4.600983 16777215
0.004068 0.705775 4.601064 16777215
-0.195673 -0.094203 5.005680 16777215
-0.696205 0.806931 5.004649 16777215
-0.195757 0.506980 4.903624 16777215
-0.495713 -0.593740 5.006658 16777215
-0.596547 -0.093898 5.006046 16777215
-0.295599 -0.594015 5.006452 16777215
0.302740 1.003906 4.601169 16777215
-0.496347 -0.194180 5.006124 16777215
0.899537 -0.590315 5.003716 16777215
-0.496445 0.306956 5.005331 16777215
0.999581 0.405052 5.001525 16777215
0.898499 -0.788460 5.003797 16777215
0.504150 -0.393350 5.004817 16777215
-0.794955 -0.891450 5.007496 16777215
0.403944 0.705704 5.002460 16777215
0.203091 1.004160 4.600976 16777215
0.897915 -0.887342 5.003795 16777215
-0.095456 0.507163 5.004300 16777215
-0.195697 0.306983 5.004943 16777215
0.404996 0.306403 5.003701 16777215
-0.996183 1.006685 5.004255 16777215
-0.596122 0.806919 5.004465 16777215
0.702715 0.505384 5.002196 16777215
0.504433 -0.293612 5.004704 16777215
0.105002 0.406919 5.004135 16777215
-0.296091 0.606160 4.601222 16777215
-0.296070 0.805701 4.600985 16777215
0.504765 0.206258 5.003712 16777215
-0.195684 0.507218 5.004491 16777215
-0.796422 0.607063 5.005196 16777215
0.702024 0.704618 5.001534 16777215
-0.896612 0.306904 5.005780 16777215
-0.996468 0.006709 5.006363 16777215
-0.196047 0.805644 4.600933 16777215
0.801426 0.604707 5.001549 16777215
-0.695451 -0.692870 5.007035 16777215
0.205358 -0.094124 5.005043 16777215
0.799194 -0.888020 5.004143 16777215
-0.295828 0.806839 5.003909 16777215
-0.796285 0.806952 5.004836 16777215
-0.595710 -0.593537 5.006757 16777215
0.900311 0.604401 5.001233 16777215
-0.296129 0.506258 4.601322 16777215
-0.996061 -0.293255 5.006840 16777215
0.004897 -0.294545 5.005694 16777215
0.104458 -0.693198 5.005946 16777215
0.004242 -0.891779 5.006244 16777215
0.901225 0.205917 5.002423 16777215
-0.894841 -0.891237 5.007633 16777215
-0.594999 -0.990975 5.007294 16777215
0.003553 1.004589 4.600721 16777215
-0.295839 0.906541 5.003625 16777215
-0.395815 -0.494225 5.006439 16777215
-0.696628 0.306904 5.005517 16777215
0.304121 0.605750 4.702159 16777215
0.305401 0.006114 5.004658 16777215
0.503000 -0.691682 5.005017 16777215
0.104382 0.506069 4.601337 16777215
0.604041 -0.193523 5.004286 16777215
0.802375 -0.093306 5.003467 16777215
0.702969 -0.292972 5.004116 16777215
-0.994686 -0.890982 5.007686 16777215
0.104961 -0.394398 5.005664 16777215
0.305090 -0.294122 5.005166 16777215
-0.295982 0.606682 4.802766 16777215
-0.195980 0.606149 4.601114 16777215
0.303828 0.805448 4.902195 16777215
0.502088 -0.889829 5.005061 16777215
-0.296167 1.005026 4.600644 16777215
-0.796348 0.707029 5.005029 16777215
0.303196 1.004485 4.901584 16777215
0.898702 1.002122 4.999846 16777215
0.901273 0.006547 5.002910 16777215
-0.595147 -0.891797 5.007181 16777215
0.603804 -0.293305 5.004426 16777215
0.404260 0.606026 5.002789 16777215
0.204367 0.505935 4.601621 16777215
-0.295949 0.806270 4.802403 16777215
0.204636 0.506337 4.802610 16777215
-0.295967 0.506991 4.903779 16777215
-0.295955 0.706518 4.802593 16777215
-0.395980 0.707082 5.004354 16777215
-0.996578 0.206860 5.006102 16777215
-0.296102 0.905381 4.600830 16777215
-0.296022 1.005608 4.801953 16777215
0.304239 0.505769 4.602007 16777215
0.703220 -0.193271 5.003977 16777215
-0.496280 0.507180 5.004947 16777215
-0.996423 0.807026 5.005141 16777215
-0.795162 -0.792102 5.007356 16777215
0.303686 0.705245 4.601718 16777215
-0.296075 0.506503 4.702109 16777215
-0.596491 0.407063 5.005251 16777215
0.205379 0.106321 5.004646 16777215
0.602055 0.904032 5.001169 16777215
-0.195646 -0.194439 5.005833 16777215
0.901172 -0.093110 5.003112 16777215
-0.895522 -0.592822 5.007188 16777215
0.303517 0.904991 4.901895 16777215
-0.295987 -0.094160 5.005802 16777215
0.504851 0.106237 5.003965 16777215
-0.895073 -0.791880 5.007525 16777215
0.502346 1.003899 5.001126 16777215
-0.496032 0.806908 5.004286 16777215
-0.696279 0.707035 5.004848 16777215
-0.696554 0.407021 5.005361 16777215
0.104505 0.506284 4.701952 16777215
0.900619 0.504839 5.001548 16777215
0.999911 0.006669 5.002553 16777215
0.304381 0.505955 4.702343 16777215
-0.396292 0.206745 5.005410 16777215
0.997079 -0.787795 5.003430 16777215
0.104216 0.605907 4.601273 16777215
-0.994350 -0.990159 5.007580 16777215
-0.796662 0.106616 5.005908 16777215
-0.996227 -0.193323 5.006668 16777215
-0.495119 -0.991072 5.007137 16777215
0.105217 -0.094183 5.005221 16777215
-0.796235 -0.293687 5.006500 16777215
0.404857 -0.293887 5.004950 16777215
-0.495375 -0.792667 5.006915 16777215
0.104817 -0.494178 5.005775 16777215
-0.495234 -0.891929 5.007033 16777215
0.004751 -0.494323 5.005940 16777215
-0.696683 0.106562 5.005818 16777215
-0.896603 0.106687 5.006038 16777215
0.105077 -0.294455 5.005535 16777215
-0.295956 0.407161 5.004885 16777215
-0.996364 -0.093330 5.006508 16777215
-0.896415 0.707044 5.005221 16777215
0.604183 0.206158 5.003424 16777215
-0.396189 0.407143 5.005024 16777215
0.204769 0.506536 4.903117 16777215
0.799849 1.002603 5.000200 16777215
0.799748 -0.789093 5.004131 16777215
0.405049 -0.193959 5.004806 16777215
0.999939 0.106267 5.002327 16777215
-0.796233 0.906832 5.004597 16777215
0.899039 -0.689448 5.003769 16777215
-0.496515 0.106490 5.005674 16777215
-0.395951 -0.394388 5.006313 16777215
-0.195611 -0.294571 5.005973 16777215
0.303064 0.904396 4.601371 16777215
0.405219 0.106263 5.004217 16777215
0.601774 -0.790280 5.004755 16777215
0.703476 0.006348 5.003603 16777215
0.997336 1.001568 4.999399 16777215
-0.295445 -0.792863 5.006656 16777215
-0.196002 0.705938 4.601034 16777215
-0.796185 1.006658 5.004288 16777215
0.602711 -0.591910 5.004684 16777215
-0.296036 0.905670 4.701501 16777215
0.004532 -0.693395 5.006125 16777215
0.800690 0.803762 5.000894 16777215
-0.295842 0.707065 5.004175 16777215
0.998156 -0.589757 5.003373 16777215
-0.596570 0.306928 5.005424 16777215
-0.396118 0.507218 5.004813 16777215
-0.696117 1.006589 5.004138 16777215
0.403179 -0.791324 5.005317 16777215
0.204291 -0.692922 5.005747 16777215
-0.995664 -0.492891 5.007209 16777215
-0.996523 0.607087 5.005588 16777215
0.996447 -0.886606 5.003388 16777215
-0.595317 -0.792503 5.007047 16777215
-0.396251 -0.094093 5.005902 16777215
-0.696290 -0.293896 5.006403 16777215
0.104649 -0.593778 5.005869 16777215
-0.696464 0.507084 5.005199 16777215
-0.296012 0.706243 4.701839 16777215
-0.694879 -0.990842 5.007450 16777215
0.901290 0.106230 5.002680 16777215
-0.095601 -0.891947 5.006425 16777215
0.999013 -0.391273 5.003201 16777215
-0.295872 0.607201 5.004426 16777215
0.305355 -0.094041 5.004850 16777215
0.603496 -0.392974 5.004536 16777215
-0.996539 0.106777 5.006228 16777215
0.700839 -0.789700 5.004450 16777215
-0.796665 0.206762 5.005769 16777215
0.999046 0.604115 5.000922 16777215
-0.296037 0.606421 4.701979 16777215
-0.195902 0.506500 4.701969 16777215
0.304273 0.706032 5.002749 16777215
-0.596639 0.106521 5.005748 16777215
0.303834 0.705442 4.701967 16777215
-0.795601 -0.593067 5.007013 16777215
-0.596437 -0.194037 5.006188 16777215
0.004418 0.506394 4.701875 16777215
0.205278 -0.194270 5.005211 16777215
0.303297 -0.890811 5.005592 16777215
0.403581 -0.692155 5.005284 16777215
-0.396176 -0.194298 5.006047 16777215
-0.895955 -0.393349 5.006817 16777215
0.204551 -0.593531 5.005679 16777215
-0.095457 -0.693513 5.006285 16777215
-0.095357 -0.394572 5.005971 16777215
0.004069 -0.990754 5.006280 16777215
0.004651 -0.593950 5.006040 16777215
-0.895298 -0.692405 5.007369 16777215
0.701242 0.903623 5.000863 16777215
0.105107 0.306807 5.004386 16777215
-0.996581 0.407013 5.005865 16777215
-0.295935 -0.194385 5.005949 16777215
0.999768 0.305473 5.001810 16777215
0.305192 0.306558 5.003947 16777215
-0.296019 0.006129 5.005643 16777215
0.104247 -0.792443 5.006004 16777215
0.700826 1.003051 5.000517 16777215
0.004943 -0.194433 5.005548 16777215
-0.596293 0.607127 5.004881 16777215
0.601273 -0.889264 5.004769 16777215
0.303347 1.004681 5.001731 16777215
-0.395538 -0.693423 5.006675 16777215
-0.695889 -0.493624 5.006710 16777215
0.702259 -0.492048 5.004312 16777215
0.900880 0.405234 5.001852 16777215
0.999348 -0.291890 5.003077 16777215
-0.695054 -0.891636 5.007337 16777215
0.203648 0.805079 4.601300 16777215
-0.696571 -0.093774 5.006109 16777215
-0.095728 0.506466 4.701884 16777215
0.900724 -0.292259 5.003430 16777215
0.404547 0.506250 5.003108 16777215
-0.495893 -0.494058 5.006527 16777215
0.604021 0.306062 5.003140 16777215
-0.595507 -0.693085 5.006903 16777215
0.802400 0.205982 5.002770 16777215
-0.095519 -0.792808 5.006361 16777215
-0.496187 0.607168 5.004739 16777215
0.004633 0.506842 4.903337 16777215
0.999613 -0.192427 5.002929 16777215
-0.996480 0.707078 5.005397 16777215
0.503423 -0.592391 5.004971 16777215
0.504794 -0.093804 5.004392 16777215
0.801937 -0.292621 5.003780 16777215
0.004396 -0.792666 5.006192 16777215
0.999890 0.205874 5.002077 16777215
0.103597 0.904851 4.600985 16777215
0.802025 0.405441 5.002185 16777215
-0.296020 0.206742 5.005290 16777215
0.004740 0.507064 5.004092 16777215
-0.895744 -0.493135 5.007001 16777215
-0.095356 0.106400 5.005184 16777215
0.502727 0.904434 5.001475 16777215
0.900388 -0.391713 5.003548 16777215
0.004939 0.206664 5.004808 16777215
0.302922 -0.989722 5.005601 16777215
0.801605 -0.392147 5.003893 16777215
0.304879 -0.393979 5.005288 16777215
0.800761 -0.590863 5.004050 16777215
0.304330 -0.593212 5.005466 16777215
0.103821 0.805275 4.601108 16777215
-0.896623 0.206799 5.005908 16777215
-0.995871 -0.393115 5.007021 16777215
-0.896225 1.006702 5.004359 16777215
-0.195481 -0.693552 5.006429 16777215
0.997645 -0.688838 5.003420 16777215
0.205219 0.306694 5.004173 16777215
0.995725 -0.985231 5.003267 16777215
-0.095341 -0.094222 5.005540 16777215
0.303216 0.904594 4.701540 16777215
-0.395919 1.006317 5.003541 16777215
-0.496065 -0.394229 5.006394 16777215
0.004311 0.506168 4.601172 16777215
-0.095950 0.705875 4.601011 16777215
-0.995212 -0.692161 5.007546 16777215
0.997874 0.902345 4.999865 16777215
0.604200 -0.093655 5.004116 16777215
0.403262 0.904824 5.001780 16777215
0.503463 0.705351 5.002158 16777215
0.800272 -0.690039 5.004100 16777215
0.105163 -0.194371 5.005385 16777215
0.104020 -0.891532 5.006046 16777215
-0.795825 -0.493381 5.006835 16777215
-0.096311 1.004760 4.600659 16777215
-0.496498 0.006229 5.005832 16777215
0.303981 0.705640 4.802223 16777215
-0.296069 0.705968 4.601113 16777215
0.504119 0.505969 5.002820 16777215
-0.195974 0.506260 4.601185 16777215
-0.296094 1.005316 4.701291 16777215
0.303976 0.805648 5.002419 16777215
-0.796575 0.406992 5.005490 16777215
0.901086 0.305590 5.002145 16777215
0.304265 0.605942 4.802458 16777215
-0.295913 0.507234 5.004662 16777215
0.404796 0.406373 5.003414 16777215
0.403609 0.805298 5.002123 16777215
-0.295864 -0.294510 5.006088 16777215
-0.896470 0.607061 5.005384 16777215
-0.195702 0.206730 5.005147 16777215
0.303045 1.004291 4.801442 16777215
0.004891 0.306893 5.004585 16777215
0.503100 0.804923 5.001818 16777215
0.502553 -0.790825 5.005046 16777215
0.703391 -0.093488 5.003806 16777215
0.004825 0.407034 5.004346 16777215
-0.794748 -0.990673 5.007584 16777215
0.405232 0.006153 5.004439 16777215
-0.095340 -0.194456 5.005697 16777215
-0.595916 -0.493854 5.006612 16777215
-0.195574 -0.394567 5.006103 16777215
-0.896316 -0.193513 5.006475 16777215
-0.796633 0.306893 5.005630 16777215
0.504609 0.306235 5.003434 16777215
0.104028 0.705636 4.601201 16777215
-0.296022 0.506747 4.802928 16777215
0.602256 -0.691164 5.004728 16777215
-0.295905 0.906250 4.902898 16777215
0.004978 0.006069 5.005209 16777215
-0.095875 0.606106 4.601073 16777215
0.305250 -0.194132 5.005019 16777215
-0.295515 -0.693520 5.006557 16777215
0.998708 0.703585 5.000601 16777215
-0.596290 -0.294091 5.006329 16777215
0.305018 0.406583 5.003671 16777215
-0.995443 -0.592576 5.007389 16777215
-0.796530 -0.093637 5.006194 16777215
0.203907 0.705458 4.601422 16777215
0.602445 0.804536 5.001509 16777215
-0.095547 0.506932 4.903473 16777215
0.405175 -0.093934 5.004635 16777215
0.304408 0.606133 4.902761 16777215
-0.095390 0.306951 5.004771 16777215
-0.396044 0.607197 5.004590 16777215
0.703475 0.106208 5.003370 16777215
-0.496497 0.206742 5.005508 16777215
0.304551 0.606323 5.003069 16777215
0.402330 -0.989243 5.005339 16777215
0.203400 -0.990137 5.005845 16777215
-0.095703 -0.990951 5.006473 16777215
0.405139 0.206357 5.003971 16777215
-0.696152 0.906782 5.004417 16777215
0.204010 -0.792142 5.005796 16777215
-0.096166 0.905177 4.600812 16777215
0.800285 0.903213 5.000556 16777215
-0.596615 0.006298 5.005898 16777215
-0.596113 -0.394035 5.006470 16777215
0.702386 0.605033 5.001868 16777215
0.204785 -0.493962 5.005592 16777215
0.603508 0.505677 5.002516 16777215
-0.596394 0.507131 5.005070 16777215
0.205321 0.206536 5.004419 16777215
0.004970 -0.094215 5.005386 16777215
0.404304 -0.493339 5.005161 16777215
0.205392 0.006087 5.004855 16777215
0.103776 -0.990483 5.006072 16777215
-0.295899 0.706792 4.903370 16777215
-0.095345 -0.294584 5.005841 16777215
-0.095346 0.006077 5.005369 16777215
0.303666 0.905190 5.002079 16777215
0.503810 -0.492946 5.004905 16777215
0.602823 0.704985 5.001848 16777215
-0.596622 0.206740 5.005589 16777215
0.701345 -0.690613 5.004420 16777215
0.603792 0.405906 5.002836 16777215
0.998322 0.803003 5.000254 16777215
0.403959 -0.592829 5.005232 16777215
-0.996590 0.306942 5.005983 16777215
-0.395911 0.906624 5.003834 16777215
-0.695244 -0.792311 5.007194 16777215
-0.295927 0.606942 4.903581 16777215
0.402760 -0.890348 5.005335 16777215
-0.196222 1.004905 4.600636 16777215
-0.195830 0.506741 4.802782 16777215
0.999338 0.504602 5.001230 16777215
0.701641 0.804146 5.001200 16777215
-0.696673 0.206745 5.005670 16777215
0.303660 -0.791766 5.005567 16777215
0.703230 0.305891 5.002821 16777215
-0.496100 0.707074 5.004519 16777215
0.304663 0.506324 4.903028 16777215
0.004199 0.606026 4.601122 16777215
0.604277 0.006270 5.003915 16777215
0.504862 0.006205 5.004193 16777215
0.703391 0.206064 5.003109 16777215
0.104749 0.506710 4.903218 16777215
-0.295994 0.306991 5.005094 16777215
-0.295396 -0.892061 5.006743 16777215
-0.195536 -0.494403 5.006223 16777215
-0.596070 0.906734 5.004225 16777215
0.899966 0.703916 5.000915 16777215
-0.095418 0.407111 5.004544 16777215
-0.994964 -0.791637 5.007658 16777215
0.304128 0.705836 4.902484 16777215
-0.896450 -0.093488 5.006320 16777215
-0.295950 1.005900 4.902629 16777215
0.104627 0.506498 4.802579 16777215
0.897274 -0.986068 5.003745 16777215
-0.896546 0.006585 5.006175 16777215
0.600755 -0.988121 5.004769 16777215
-0.195690 0.407153 5.004724 16777215
0.899990 -0.491068 5.003643 16777215
-0.395315 -0.892021 5.006889 16777215
0.899172 0.902794 5.000236 16777215
-0.596199 0.707053 5.004681 16777215
0.304623 -0.493680 5.005388 16777215
0.303367 0.904792 4.801715 16777215
0.104870 0.506921 5.003868 16777215
0.204901 0.506734 5.003630 16777215
-0.395241 -0.991127 5.006979 16777215
-0.894588 -0.990455 5.007656 16777215
0.801209 -0.491564 5.003982 16777215
-0.195474 -0.792872 5.006516 16777215
-0.696100 -0.393817 5.006554 16777215
-0.596044 1.006508 5.003953 16777215
-0.696450 -0.193875 5.006255 16777215
0.204988 -0.394218 5.005485 16777215
-0.495537 -0.693274 5.006787 16777215
0.304802 0.506508 5.003377 16777215
-0.896149 -0.293472 5.006642 16777215
0.304523 0.506140 4.802684 16777215
-0.295690 -0.494343 5.006338 16777215
0.999802 -0.092902 5.002754 16777215
0.601654 1.003481 5.000823 16777215
0.303381 0.804850 4.601553 16777215
0.103358 1.004389 4.600826 16777215
0.802197 -0.193001 5.003639 16777215
